# .PCD v0.7 - Point Cloud Data file format
VERSION 0.7
FIELDS x y z
SIZE 4 4 4
TYPE F F F
COUNT 1 1 1
WIDTH 152
HEIGHT 1
VIEWPOINT 0 0 0 1 0 0 0
POINTS 152
DATA ascii
0.012 0.024 0.00875
0.02 0.012 0.60624999
0.024 0.0080000004 1.2112499
0.0040000002 0.0080000004 1.80875
0 0.035999998 2.4037499
30.024 75 5.0075002
30.007999 75.024002 5.6012502
30.032 75.028 6.2112498
30.007999 75 6.8024998
30.011999 75.028 7.40625
30.035999 75.008003 8.0024996
18 38.023998 0.00125
12.028 47.02 0.0062500001
18.016001 56.028 0.00875
1.036 47 0.01125
27.004 45.035999 0.0062500001
12.008 55.015999 0.0062500001
13.032 19.007999 0.0049999999
20.007999 49.028 0.0062500001
18.032 40.015999 0.0024999999
6.0279999 42.032001 0
18.024 40.007999 0.00875
0.035999998 58.023998 0.0049999999
22.011999 43.012001 0
19 58.007999 0.0024999999
17.028 42.02 0.0074999998
9.0159998 54.004002 0.0037499999
12.004 43 0.00125
19.004 14 0.00125
16.004 21.004 0.0037499999
29.032 11.012 0.0024999999
9.0159998 16.007999 0.0099999998
10.016 19.028 0.00875
21.024 44.004002 0.0062500001
18.007999 15.004 0.0049999999
18.007999 47.023998 0.0049999999
1.016 26.02 0.0024999999
3.016 55.02 0.0037499999
5.0359998 10.036 0.00875
29.007999 15.008 0.01125
20.011999 16.007999 0.0074999998
12.036 52.015999 0.0062500001
2.016 25.035999 0.0099999998
7.0359998 56.015999 0.0074999998
16.024 24.011999 0
10.032 45.032001 0.0037499999
22.032 48.02 0.0024999999
7.0359998 21.02 0.00125
11.016 29 0.01125
11 47.015999 0.0062500001
3.0239999 28.024 0.0037499999
25.007999 22.016001 0.0037499999
5.0040002 57.028 0.0024999999
22.035999 14.02 0
4.0079999 10.02 0.0049999999
16.02 21.016001 0.0049999999
23.016001 57.023998 0.0099999998
27.011999 40.004002 0.0099999998
6.0279999 10.036 0.0099999998
0.024 13.032 0.0037499999
2.02 24.004 0.00875
27.028 34.023998 0.01125
28.011999 31 0.0074999998
24 58.023998 0.00125
23.007999 27.032 0.0049999999
10.036 32.035999 0.00875
19.004 24.035999 0
19.632 24.004 0.0062500001
20.228001 24.035999 0.0049999999
20.812 24 0.01125
19.615999 24.624001 0.0037499999
20.208 24.636 0.00125
20.219999 25.200001 0.0074999998
20.799999 25.200001 0
19.011999 25.836 0.01125
20.216 25.832001 0.0049999999
20.812 25.836 0.0037499999
21.416 25.836 0.0074999998
19.035999 26.427999 0.0099999998
19.624001 26.4 0.0099999998
20.219999 26.416 0.0074999998
21.4 26.431999 0.0062500001
2.0280001 30.032 0.0049999999
2.628 30.032 0.01125
3.2320001 30.035999 0.0062500001
3.836 30.02 0.0099999998
4.4320002 30.004 0.0024999999
3.2320001 30.628 0.0024999999
3.8280001 30.620001 0.0099999998
4.4359999 30.620001 0.0062500001
2.016 31.808001 0.0074999998
3.816 31.827999 0.0099999998
2 32.428001 0.0099999998
2.6240001 32.416 0.0099999998
3.2279999 32.419998 0.00875
3.8080001 32.416 0.0062500001
7.0240002 28.011999 0.0049999999
7.612 28.028 0.00125
9.4040003 28.028 0.00125
10.024 28.02 0.00875
7 28.604 0.0037499999
7.632 28.604 0.0049999999
8.2200003 28.636 0
9.4040003 28.628 0
10.032 28.624001 0.0024999999
7.0079999 29.204 0.0037499999
7.6360002 29.228001 0.01125
9.4119997 29.212 0.0099999998
10.02 29.216 0.0099999998
10.032 29.808001 0.0037499999
7.0279999 30.412001 0.0049999999
7.5999999 30.412001 0.00875
18.024 44.035999 0.0037499999
18.612 44.035999 0.0024999999
19.804001 44.004002 0.0074999998
18.011999 44.619999 0.0062500001
18 45.223999 0.01125
19.212 45.216 0.0074999998
19.836 45.208 0.0074999998
18.615999 45.827999 0.0037499999
19.236 45.812 0.0062500001
19.816 45.799999 0.0024999999
20.416 45.832001 0.00125
20.427999 46.403999 0
17.403999 41.032001 0.0099999998
15.032 41.612 0.0099999998
15.616 41.616001 0.0049999999
16.204 41.599998 0.0037499999
15.02 42.223999 0.01125
15.612 42.203999 0.0099999998
16.224001 42.228001 0.0024999999
16.836 42.236 0.0099999998
17.427999 42.200001 0.0074999998
15.004 42.799999 0.00875
16.224001 42.812 0.0062500001
16.816 42.807999 0.00125
15.016 43.431999 0.0062500001
15.632 43.436001 0.0099999998
16.216 43.428001 0.0049999999
0.62400001 32.015999 0.0099999998
1.22 32.023998 0.00875
1.816 32.028 0.00875
2.424 32.02 0.0099999998
0.62400001 32.608002 0.0074999998
1.204 32.599998 0
2.4200001 32.612 0.0049999999
0.616 33.231998 0.0037499999
1.22 33.223999 0.01125
0.0080000004 33.812 0.0024999999
0.60799998 33.804001 0.0074999998
0.012 34.424 0.0062500001
1.808 34.408001 0.0049999999
